241.881 104 -44.8299
244.381 103 -42.212
246.352 107 -42.5524
245.814 108 -45.5589
244.381 111 -42.212
235.447 105 -34.7678
238.954 109 -38.2743
237.425 109 -35.0599
235.854 105 -31.8887
237.836 109 -32.1567
236.226 107 -29.0049
236.226 110 -29.0049
242.904 102 -38.9069
243.361 103 -35.9364
243.782 103 -32.9606
242.904 106 -38.9069
243.361 108 -35.9364
240.929 111 -38.5906
244.166 103 -29.9799
244.166 106 -29.9799
244.166 107 -29.9799
246.151 109 -30.2236
241.382 111 -35.6443
239.818 112 -32.4247
243.782 109 -32.9606
240.713 114 -50.7262
240.44 115 -41.5311
244.381 121 -42.212
248.323 114 -42.8928
240.713 123 -50.7262
239.353 121 -47.3932
239.914 121 -44.4655
243.277 120 -48.1701
245.239 121 -48.5586
240.713 127 -50.7262
238.469 126 -41.1907
242.41 125 -41.8715
238.954 124 -38.2743
242.41 122 -41.8715
246.853 124 -39.5395
238.954 121 -38.2743
241.382 121 -35.6443
239.818 122 -32.4247
242.181 113 -29.7361
246.151 120 -30.2236
240.196 122 -29.4924
243.782 121 -32.9606
244.166 121 -29.9799
250.803 114 -40.1721
243.782 113 -32.9606
244.879 120 -39.2232
247.318 120 -36.5208
247.746 120 -33.4965
247.318 123 -36.5208
234.241 90 -28.7612
232.256 92 -28.5174
240.196 88 -29.4924
236.563 96 -26.1168
240.539 91 -26.5557
242.835 96 -23.8102
244.826 95 -24.0054
236.563 104 -26.1168
242.526 99 -26.7752
242.526 102 -26.7752
244.826 104 -24.0054
236.864 101 -23.2247
237.13 104 -20.3292
243.108 102 -20.8417
237.13 108 -20.3292
239.123 111 -20.5001
239.355 111 -17.5772
237.361 107 -17.4307
245.101 106 -21.0126
245.339 106 -18.0166
237.556 109 -14.5296
237.716 109 -11.6262
239.839 111 -8.79449
245.541 104 -15.0179
245.541 107 -15.0179
243.709 108 -11.9193
245.706 106 -12.017
245.706 113 -12.017
236.563 110 -26.1168
240.845 112 -23.6151
244.514 108 -26.9946
243.108 113 -20.8417
248.49 110 -27.4336
244.826 109 -24.0054
245.101 113 -21.0126
249.086 110 -21.3542
242.526 121 -26.7752
242.835 122 -23.8102
241.116 120 -20.6709
246.816 120 -24.2006
247.094 119 -21.1834
241.549 118 -14.7737
249.086 119 -21.3542
249.534 115 -15.2621
232.883 91 -22.8344
232.883 92 -22.8344
236.563 89 -26.1168
236.864 89 -23.2247
236.226 86 -29.0049
238.551 88 -26.3362
240.845 88 -23.6151
240.845 90 -23.6151
235.137 95 -20.1584
235.366 94 -17.2842
237.361 91 -17.4307
239.123 90 -20.5001
241.35 94 -17.7236
237.556 91 -14.5296
237.716 92 -11.6262
239.552 90 -14.6516
241.711 94 -11.8216
237.84 93 -8.7212
237.929 91 -5.81486
241.837 90 -8.86778
241.837 94 -8.86778
235.56 95 -14.4075
237.716 97 -11.6262
237.556 96 -14.5296
241.549 94 -14.7737
237.556 100 -14.5296
238 92 0
239.999 92 0.837756
238 94 0
237.982 93 -2.90765
239.982 90 -2.93208
239.999 89 0.837756
243.999 89 0.851719
237.929 93 -5.81486
237.929 98 -5.81486
235.982 95 -2.88321
238 97 0
237.982 99 -2.90765
237.716 107 -11.6262
237.716 101 -11.6262
245.706 104 -12.017
243.836 103 -8.94106
237.929 103 -5.81486
237.982 107 -2.90765
237.982 111 -2.90765
239.982 113 -2.93208
245.835 106 -9.01435
245.927 104 -6.01032
245.982 104 -3.00538
245.927 107 -6.01032
243.982 108 -2.98095
242.116 136 -69.8833
241.024 137 -66.389
246.808 135 -67.9824
241.817 138 -63.4395
242.574 138 -60.4805
249.555 137 -65.4695
247.621 135 -64.962
250.336 136 -62.4158
248.396 141 -61.932
242.67 129 -51.1386
243.295 137 -57.5124
243.979 138 -54.5358
245.931 136 -54.9721
247.187 140 -58.4326
249.134 137 -58.8927
251.08 139 -59.3528
251.787 139 -56.281
241.315 129 -47.7817
244.381 127 -42.212
240.44 128 -41.5311
246.352 132 -42.5524
244.381 137 -42.212
246.853 135 -39.5395
244.627 138 -51.551
246.584 136 -51.9635
249.163 136 -49.3355
250.498 137 -52.7883
245.239 138 -48.5586
247.78 136 -45.9234
250.294 136 -43.2332
249.163 141 -49.3355
245.814 140 -45.5589
246.352 140 -42.5524
250.294 143 -43.2332
254.235 142 -43.9141
255.232 143 -37.6894
248.828 156 -39.8558
252.778 156 -40.4885
239.404 127 -35.3521
239.818 129 -32.4247
240.196 126 -29.4924
245.764 127 -33.2286
244.166 130 -29.9799
240.539 126 -26.5557
240.845 124 -23.6151
244.514 124 -26.9946
244.514 128 -26.9946
244.514 132 -26.9946
244.826 132 -24.0054
241.116 124 -20.6709
244.826 129 -24.0054
248.807 123 -24.3957
245.101 122 -21.0126
249.086 123 -21.3542
251.323 123 -18.456
250.478 124 -27.653
250.797 127 -24.5909
252.466 128 -27.8725
252.788 129 -24.7861
253.072 128 -21.6959
246.816 133 -24.2006
252.788 131 -24.7861
238.954 127 -38.2743
246.853 127 -39.5395
240.929 129 -38.5906
243.361 131 -35.9364
242.904 133 -38.9069
243.361 133 -35.9364
245.34 135 -36.2286
243.782 133 -32.9606
247.318 129 -36.5208
251.275 132 -37.1051
249.728 131 -33.7645
245.764 137 -33.2286
246.151 136 -30.2236
248.137 138 -30.4673
248.49 134 -27.4336
246.502 137 -27.2141
252.107 133 -30.9548
247.318 137 -36.5208
247.318 140 -36.5208
247.746 141 -33.4965
248.137 141 -30.4673
250.122 143 -30.7111
253.254 141 -37.3973
255.674 142 -34.5684
256.077 142 -31.4423
248.807 135 -24.3957
253.072 135 -21.6959
246.816 137 -24.2006
248.807 140 -24.3957
248.49 142 -27.4336
248.807 142 -24.3957
252.788 143 -24.7861
256.442 142 -28.3115
256.769 142 -25.1764
245.101 131 -21.0126
245.339 134 -18.0166
253.318 131 -18.6025
247.334 137 -18.1631
245.541 138 -15.0179
247.537 139 -15.14
253.526 135 -15.5063
253.697 134 -12.4078
251.831 139 -9.23421
241.549 129 -14.7737
241.837 130 -8.86778
241.928 125 -5.91259
241.549 134 -14.7737
245.706 131 -12.017
241.837 135 -8.86778
245.706 134 -12.017
243.836 139 -8.94106
251.831 136 -9.23421
249.329 124 -18.3095
249.534 123 -15.2621
247.704 128 -12.1147
245.339 128 -18.0166
241.549 123 -14.7737
243.927 120 -5.96145
245.835 124 -9.01435
247.833 127 -9.08764
251.323 127 -18.456
253.526 125 -15.5063
253.526 128 -15.5063
253.526 123 -15.5063
253.697 123 -12.4078
251.699 127 -12.3101
249.832 129 -9.16093
253.697 128 -12.4078
253.697 132 -12.4078
247.318 158 -36.5208
245.764 161 -33.2286
246.151 161 -30.2236
249.728 160 -33.7645
246.502 164 -27.2141
250.478 158 -27.653
252.107 162 -30.9548
252.466 162 -27.8725
256.442 164 -28.3115
248.49 155 -27.4336
246.502 157 -27.2141
246.816 157 -24.2006
247.094 157 -21.1834
251.079 157 -21.5251
246.816 162 -24.2006
251.079 160 -21.5251
252.788 162 -24.7861
248.807 167 -24.3957
247.334 161 -18.1631
249.534 158 -15.2621
251.323 159 -18.456
251.53 161 -15.3842
247.094 165 -21.1834
249.086 168 -21.3542
249.086 170 -21.3542
245.339 167 -18.0166
253.072 162 -21.6959
253.526 163 -15.5063
257.307 164 -18.8955
257.057 166 -22.0376
257.519 165 -15.7505
257.307 167 -18.8955
257.307 170 -18.8955
261.511 165 -15.9947
263.508 166 -16.1168
240.337 136 -75.7779
241.245 136 -72.836
245.093 135 -80.5824
246.059 136 -77.5821
246.988 136 -74.5702
242.116 139 -69.8833
247.881 138 -71.5472
248.737 139 -68.5135
247.621 141 -64.962
242.244 158 -76.3793
246.988 157 -74.5702
242.244 161 -76.3793
245.074 161 -73.9921
247.966 158 -78.1835
249.874 162 -78.7849
246.988 163 -74.5702
248.903 161 -75.1483
243.159 158 -73.4141
242.116 158 -69.8833
239.33 160 -72.2579
244.038 162 -70.4379
244.88 159 -67.4513
247.881 158 -71.5472
248.737 160 -68.5135
247.881 163 -71.5472
245.686 159 -64.4545
247.621 163 -64.962
244.515 160 -60.9643
246.455 159 -61.4482
247.187 162 -58.4326
246.455 165 -61.4482
249.555 161 -65.4695
254.217 167 -63.3835
245.686 167 -64.4545
249.555 166 -65.4695
256.158 166 -63.8674
251.08 161 -59.3528
243.979 164 -54.5358
247.883 161 -55.4084
248.541 161 -52.3759
244.627 163 -51.551
245.239 163 -48.5586
251.787 160 -56.281
250.498 159 -52.7883
252.455 162 -53.2007
249.747 160 -46.2878
253.086 160 -50.1125
253.68 160 -47.0168
254.235 160 -43.9141
246.352 160 -42.5524
252.264 157 -43.5736
243.751 177 -63.947
244.515 180 -60.9643
246.455 177 -61.4482
250.336 181 -62.4158
245.241 180 -57.9725
245.931 181 -54.9721
251.08 178 -59.3528
251.787 179 -56.281
254.217 170 -63.3835
251.49 177 -65.9771
252.277 175 -62.8997
253.424 179 -66.4846
254.217 184 -63.3835
254.217 178 -63.3835
256.919 179 -60.7331
243.159 176 -73.4141
242.116 179 -69.8833
244.038 183 -70.4379
244.88 179 -67.4513
243.751 179 -63.947
248.903 175 -75.1483
251.724 177 -72.6564
251.724 182 -72.6564
244.038 187 -70.4379
243.751 189 -63.947
243.751 183 -63.947
247.621 184 -64.962
250.336 185 -62.4158
249.555 188 -65.4695
255.359 185 -66.9921
254.217 190 -63.3835
250.336 169 -62.4158
247.187 168 -58.4326
251.08 169 -59.3528
251.787 171 -56.281
244.627 170 -51.551
245.239 175 -48.5586
243.979 178 -54.5358
246.584 181 -51.9635
251.787 175 -56.281
253.086 176 -50.1125
252.455 178 -53.2007
245.239 166 -48.5586
253.68 165 -47.0168
257.642 170 -57.5898
252.455 168 -53.2007
253.086 171 -50.1125
258.326 170 -54.4379
258.972 170 -51.2779
259.579 170 -48.1102
246.352 163 -42.5524
250.803 159 -40.1721
251.275 161 -37.1051
247.318 164 -36.5208
245.764 163 -33.2286
253.692 163 -34.3005
246.352 169 -42.5524
247.318 168 -36.5208
247.746 168 -33.4965
247.318 172 -36.5208
245.764 172 -33.2286
254.753 162 -40.8048
254.235 166 -43.9141
254.753 166 -40.8048
254.235 171 -43.9141
260.148 169 -44.9353
255.674 169 -34.5684
246.352 177 -42.5524
249.163 183 -49.3355
245.814 182 -45.5589
250.294 181 -43.2332
248.323 186 -42.8928
252.778 185 -40.4885
244.381 181 -42.212
246.853 180 -39.5395
250.803 183 -40.1721
242.904 185 -38.9069
248.828 187 -39.8558
253.68 177 -47.0168
251.125 180 -49.724
253.68 174 -47.0168
252.264 178 -43.5736
254.235 174 -43.9141
260.148 174 -44.9353
255.232 179 -37.6894
250.294 179 -43.2332
254.753 181 -40.8048
256.206 183 -44.2545
246.151 165 -30.2236
248.137 167 -30.4673
248.49 170 -27.4336
246.502 172 -27.2141
248.807 170 -24.3957
244.826 173 -24.0054
245.101 173 -21.0126
246.816 175 -24.2006
256.442 172 -28.3115
248.807 177 -24.3957
249.086 176 -21.3542
249.329 177 -18.3095
257.307 174 -18.8955
255.313 183 -18.749
256.769 177 -25.1764
257.057 180 -22.0376
257.057 183 -22.0376
257.307 182 -18.8955
247.746 176 -33.4965
248.137 177 -30.4673
245.764 179 -33.2286
243.782 182 -32.9606
243.782 186 -32.9606
251.275 185 -37.1051
255.674 180 -34.5684
255.674 182 -34.5684
253.692 184 -34.3005
251.71 185 -34.0325
252.107 185 -30.9548
252.466 185 -27.8725
254.454 184 -28.092
256.442 183 -28.3115
243.782 173 -32.9606
244.166 173 -29.9799
246.502 175 -27.2141
246.502 179 -27.2141
248.49 178 -27.4336
244.166 181 -29.9799
244.166 183 -29.9799
244.514 184 -26.9946
244.826 184 -24.0054
245.101 183 -21.0126
246.816 180 -24.2006
247.094 179 -21.1834
253.072 185 -21.6959
239.97 88 3.76976
239.906 89 6.70119
243.97 88 3.83259
243.905 88 6.81288
239.807 90 9.63163
241.668 87 12.6653
239.5 88 15.4878
239.671 90 12.5606
243.491 88 15.7459
243.491 90 15.7459
243.666 91 12.77
239.97 90 3.76976
239.906 92 6.70119
245.97 95 3.864
238 100 0
241.999 100 0.844738
241.999 97 0.844738
241.97 99 3.80117
241.906 100 6.75704
243.905 98 6.81288
245.904 102 6.86872
241.496 103 15.6168
243.666 102 12.77
239.999 102 0.837756
238 103 0
238 106 0
237.971 105 3.73834
237.999 109 0.830775
237.999 112 0.830775
241.982 113 -2.95651
237.971 108 3.73834
237.907 109 6.64535
237.971 111 3.73834
249.998 105 0.872663
245.97 104 3.864
243.905 103 6.81288
245.97 110 3.864
243.905 110 6.81288
237.808 112 9.55137
237.808 109 9.55137
239.671 108 12.5606
237.674 112 12.456
237.504 112 15.3587
243.803 107 9.79216
241.668 105 12.6653
241.496 106 15.6168
243.803 110 9.79216
245.663 110 12.8746
245.487 110 15.8749
239.293 88 18.4126
239.05 89 21.3346
243.281 88 18.7194
243.034 87 21.6902
243.034 90 21.6902
240.761 90 24.4556
238.457 91 27.1688
240.092 89 30.3306
242.432 92 27.6216
242.432 90 27.6216
236.47 97 26.9424
238.771 96 24.2535
236.782 99 24.0514
236.47 99 26.9424
238.108 100 30.08
243.281 102 18.7194
244.741 100 24.8598
244.419 99 27.848
238.108 92 30.08
237.722 91 32.9867
242.076 91 30.5813
241.684 91 33.5365
242.432 95 27.6216
238.108 96 30.08
237.722 96 32.9867
239.703 98 33.2616
243.665 96 33.8114
244.06 98 30.832
241.042 104 21.5124
241.287 106 18.566
236.782 103 24.0514
237.058 107 21.1568
237.058 111 21.1568
245.026 108 21.868
244.741 106 24.8598
244.741 111 24.8598
236.123 108 29.8293
244.419 103 27.848
244.419 106 27.848
244.06 106 30.832
243.665 103 33.8114
244.419 108 27.848
244.06 112 30.832
241.684 111 33.5365
245.646 107 34.0862
247.627 109 34.3611
239.999 115 0.837756
237.971 115 3.73834
241.999 118 0.844738
245.982 113 -3.00538
245.982 120 -3.00538
247.998 118 0.865682
245.97 113 3.864
247.903 113 6.92457
241.982 123 -2.95651
246 122 0
241.97 125 3.80117
249.998 116 0.872663
249.981 119 -3.05425
248 120 0
249.998 120 0.872663
249.903 117 6.98041
247.969 121 3.89541
249.903 122 6.98041
251.981 121 -3.07868
249.998 123 0.872663
253.981 123 -3.10312
256 124 0
246 126 0
251.969 125 3.95824
249.969 123 3.92683
251.902 128 7.03625
253.901 126 7.0921
237.907 116 6.64535
237.808 116 9.55137
241.805 120 9.71189
237.674 115 12.456
239.5 117 15.4878
241.668 121 12.6653
249.799 115 10.0329
249.799 119 10.0329
249.657 117 13.084
245.663 114 12.8746
245.487 114 15.8749
245.275 113 18.8729
247.483 118 16.004
241.805 127 9.71189
249.799 122 10.0329
249.657 123 13.084
251.475 123 16.2621
251.797 128 10.1132
253.652 130 13.2933
253.652 127 13.2933
253.652 126 13.2933
237.299 116 18.2591
237.058 116 21.1568
245.026 114 21.868
241.287 119 18.566
241.042 123 21.5124
236.782 116 24.0514
238.457 119 27.1688
236.47 116 26.9424
244.419 114 27.848
240.444 121 27.3952
240.092 120 30.3306
240.444 124 27.3952
249.263 117 19.1798
249.01 117 22.2236
248.72 117 25.2641
249.263 121 19.1798
251.257 123 19.3332
249.01 121 22.2236
248.393 116 28.3008
248.029 116 31.3333
248.029 119 31.3333
248.72 125 25.2641
250.71 123 25.4662
246.044 123 31.0826
248.393 121 28.3008
250.013 123 31.584
240.761 132 24.4556
252.994 127 22.5792
252.7 126 25.6683
248.72 128 25.2641
252.7 129 25.6683
253.471 131 16.3912
253.471 128 16.3912
249.263 133 19.1798
248.393 129 28.3008
252.367 129 28.7536
252.367 126 28.7536
251.997 129 31.8346
248.72 135 25.2641
248.029 134 31.3333
252.367 136 28.7536
251.997 136 31.8346
237.302 92 35.8885
236.845 92 38.7849
241.257 91 36.4866
240.793 92 39.4313
238.323 93 42.0229
237.302 97 35.8885
236.845 96 38.7849
237.302 100 35.8885
241.257 95 36.4866
242.767 98 39.7545
235.324 105 35.5894
234.872 102 38.4617
234.384 101 41.3283
234.384 103 41.3283
242.767 103 39.7545
236.354 100 41.6756
239.758 102 45.3027
242.263 103 42.7175
235.827 104 44.56
235.265 102 47.4378
236.624 101 50.7277
241.147 102 48.6237
240.535 102 51.5662
235.324 111 35.5894
234.384 110 41.3283
234.384 115 41.3283
235.827 115 44.56
247.189 109 37.3838
241.257 111 36.4866
243.234 113 36.7857
240.793 108 39.4313
246.202 109 43.412
242.767 113 39.7545
242.263 113 42.7175
233.305 109 47.0424
241.147 106 48.6237
241.147 111 48.6237
237.226 116 47.8331
241.723 111 45.674
245.653 114 46.4167
245.068 114 49.4143
230.728 105 58.3832
229.233 108 64.0029
235.796 107 62.7404
238.864 107 66.6921
232.086 104 52.7285
235.986 101 53.6147
233.369 102 56.0269
239.887 102 54.5009
239.203 103 57.4276
238.484 100 60.3456
238.484 103 60.3456
237.729 102 63.2547
229.998 95 61.1976
229.998 98 61.1976
231.159 94 64.5408
229.233 96 64.0029
228.434 96 66.7987
229.233 102 64.0029
233.085 94 65.0786
237.729 96 63.2547
236.938 97 66.1543
236.938 101 66.1543
232.086 108 52.7285
232.086 111 52.7285
231.424 110 55.56
235.314 115 56.4938
230.728 109 58.3832
230.728 110 58.3832
234.606 113 59.3644
239.203 106 57.4276
236.545 107 59.855
239.887 107 54.5009
239.203 110 57.4276
243.787 112 55.3871
235.986 116 53.6147
244.446 114 52.4046
243.787 115 55.3871
233.863 112 62.2261
233.085 112 65.0786
233.085 114 65.0786
233.863 118 62.2261
241.594 108 64.2832
242.361 110 61.3268
241.594 111 64.2832
240.791 109 67.23
241.594 112 64.2832
240.791 113 67.23
240.422 114 60.8362
242.361 116 61.3268
241.594 116 64.2832
240.791 116 67.23
235.741 117 32.7118
235.324 118 35.5894
234.872 117 38.4617
239.703 121 33.2616
239.279 120 36.1876
236.354 119 41.6756
238.323 121 42.0229
238.819 124 39.1081
243.665 115 33.8114
243.234 116 36.7857
242.767 116 39.7545
242.263 116 42.7175
247.627 120 34.3611
246.714 120 40.401
249.167 123 37.6829
237.792 123 44.9313
246.202 119 43.412
245.653 118 46.4167
245.068 118 49.4143
245.653 121 46.4167
245.068 122 49.4143
248.172 123 43.7593
248.172 126 43.7593
250.661 124 41.0474
247.618 125 46.788
239.703 132 33.2616
239.279 135 36.1876
238.819 135 39.1081
243.234 134 36.7857
239.703 137 33.2616
240.092 139 30.3306
241.684 141 33.5365
245.646 138 34.0862
242.767 137 39.7545
239.279 128 36.1876
237.792 131 44.9313
238.323 134 42.0229
240.793 133 39.4313
242.263 131 42.7175
239.758 135 45.3027
251.589 126 34.9109
247.189 130 37.3838
251.144 129 37.982
249.608 132 34.636
249.608 135 34.636
251.589 137 34.9109
249.167 126 37.6829
250.661 128 41.0474
246.714 130 40.401
250.141 131 44.1066
247.618 129 46.788
236.624 122 50.7277
235.986 125 53.6147
241.837 125 54.944
237.226 130 47.8331
236.624 128 50.7277
235.986 128 53.6147
239.887 130 54.5009
242.49 126 51.9854
244.446 119 52.4046
243.787 118 55.3871
248.357 122 53.2431
247.688 122 56.2733
246.982 122 59.2951
244.446 127 52.4046
248.357 128 53.2431
248.989 126 50.205
243.787 125 55.3871
243.092 127 58.3613
247.688 125 56.2733
235.314 122 56.4938
235.314 127 56.4938
237.258 129 56.9607
234.606 126 59.3644
233.863 129 62.2261
233.863 122 62.2261
233.085 122 65.0786
233.863 125 62.2261
241.148 119 57.8945
242.361 118 61.3268
246.239 121 62.3081
238.864 120 66.6921
245.46 120 65.3117
244.643 119 68.3056
244.3 128 61.8175
246.239 126 62.3081
242.717 125 67.7678
245.46 124 65.3117
239.186 133 48.2284
237.936 133 54.0578
244.446 131 52.4046
241.723 135 45.674
243.688 144 46.0453
235.796 131 62.7404
243.092 131 58.3613
242.361 129 61.3268
246.239 139 62.3081
245.46 138 65.3117
250.117 139 63.2893
243.787 150 55.3871
249.325 139 66.3403
245.46 150 65.3117
241.148 151 57.8945
240.422 152 60.8362
239.661 151 63.7689
244.3 153 61.8175
245.46 153 65.3117
241.982 129 -2.95651
247.981 127 -3.02982
246 127 0
241.928 134 -5.91259
249.981 127 -3.05425
253.981 128 -3.10312
255.981 125 -3.12755
253.998 126 0.886625
249.998 129 0.872663
253.998 127 0.886625
254 130 0
249.925 130 -6.10804
253.981 130 -3.10312
253.924 134 -6.20577
253.981 134 -3.10312
254 133 0
241.982 138 -2.95651
241.928 140 -5.91259
241.982 141 -2.95651
243.982 143 -2.98095
245.999 146 0.8587
247.833 141 -9.08764
251.925 139 -6.15691
249.981 137 -3.05425
247.998 137 0.865682
253.981 140 -3.10312
252 139 0
250 138 0
252 136 0
253.998 142 0.886625
254 140 0
253.969 142 3.98966
253.924 141 -6.20577
253.981 143 -3.10312
249.981 146 -3.05425
249.998 143 0.872663
250 144 0
253.998 145 0.886625
252 147 0
242 129 0
242 130 0
242 134 0
241.97 133 3.80117
241.97 138 3.80117
241.906 138 6.75704
242 140 0
243.97 141 3.83259
243.999 144 0.851719
241.805 135 9.71189
241.805 138 9.71189
241.805 140 9.71189
241.496 135 15.6168
249.657 135 13.084
249.969 131 3.92683
249.903 132 6.98041
249.799 132 10.0329
251.902 136 7.03625
247.969 139 3.89541
249.903 141 6.98041
249.799 134 10.0329
251.655 137 13.1887
253.795 137 10.1935
241.805 142 9.71189
241.668 143 12.6653
243.803 145 9.79216
245.802 146 9.87242
249.903 144 6.98041
247.66 142 12.9793
245.663 146 12.8746
241.496 145 15.6168
243.491 147 15.7459
245.487 150 15.8749
241.496 140 15.6168
241.287 138 18.566
241.287 141 18.566
241.042 142 21.5124
245.275 145 18.8729
251.655 140 13.1887
247.483 140 16.004
251.475 139 16.2621
253.471 136 16.3912
253.652 138 13.2933
247.269 138 19.0263
249.01 136 22.2236
249.263 137 19.1798
253.251 136 19.4866
253.251 140 19.4866
251.002 140 22.4014
249.657 145 13.084
249.479 144 16.1331
251.655 147 13.1887
253.471 149 16.3912
245.026 146 21.868
245.026 148 21.868
251.002 146 22.4014
249.263 149 19.1798
251.257 152 19.3332
245.97 152 3.864
253.969 146 3.98966
253.998 147 0.886625
253.969 149 3.98966
253.901 149 7.0921
253.795 149 10.1935
251.998 151 0.879644
253.969 152 3.98966
253.998 154 0.886625
253.901 155 7.0921
245.802 155 9.87242
245.487 157 15.8749
247.269 158 19.0263
253.652 153 13.2933
253.471 158 16.3912
253.471 155 16.3912
247.704 163 -12.1147
247.704 161 -12.1147
245.706 167 -12.017
247.833 161 -9.08764
249.702 159 -12.2124
251.831 161 -9.23421
249.925 159 -6.10804
247.981 161 -3.02982
247.926 163 -6.05918
247.981 163 -3.02982
245.706 171 -12.017
245.927 167 -6.01032
245.927 171 -6.01032
245.982 165 -3.00538
245.982 169 -3.00538
245.982 172 -3.00538
246 169 0
248 171 0
245.999 173 0.8587
253.697 164 -12.4078
257.827 164 -9.45408
257.923 165 -6.3035
253.924 163 -6.20577
257.692 168 -12.6032
257.692 170 -12.6032
257.827 170 -9.45408
257.827 167 -9.45408
261.922 166 -6.40123
257.923 169 -6.3035
251.981 162 -3.07868
254 165 0
257.981 164 -3.15199
250 172 0
258 171 0
258 167 0
261.98 166 -3.20085
257.981 169 -3.15199
249.534 175 -15.2621
247.537 173 -15.14
249.702 175 -12.2124
249.832 175 -9.16093
249.702 178 -12.2124
247.833 179 -9.08764
247.537 179 -15.14
245.541 184 -15.0179
245.706 182 -12.017
247.833 182 -9.08764
253.697 184 -12.4078
257.692 174 -12.6032
257.519 179 -15.7505
257.519 183 -15.7505
255.694 183 -12.5055
257.827 180 -9.45408
249.925 179 -6.10804
245.999 176 0.8587
250 174 0
250 177 0
251.998 175 0.879644
245.999 181 0.8587
250 180 0
251.998 179 0.879644
257.923 175 -6.3035
257.981 175 -3.15199
258 175 0
257.923 180 -6.3035
258 178 0
255.998 181 0.893607
258 182 0
245.999 163 0.8587
245.999 164 0.8587
244 167 0
245.97 163 3.864
245.904 169 6.86872
245.999 161 0.8587
245.97 160 3.864
253.969 161 3.98966
251.998 162 0.879644
253.969 158 3.98966
257.998 158 0.900588
259.968 160 4.0839
245.802 164 9.87242
245.487 162 15.8749
245.487 166 15.8749
247.269 165 19.0263
253.251 162 19.4866
253.901 161 7.0921
253.901 164 7.0921
257.899 167 7.20378
253.471 162 16.3912
259.458 163 16.7784
245.904 174 6.86872
245.904 175 6.86872
245.802 176 9.87242
245.802 172 9.87242
245.663 174 12.8746
247.483 177 16.004
245.802 181 9.87242
247.8 179 9.95268
247.66 179 12.9793
249.479 179 16.1331
249.969 177 3.92683
249.903 177 6.98041
249.799 179 10.0329
247.969 180 3.89541
247.903 180 6.92457
253.969 177 3.98966
257.899 179 7.20378
245.487 169 15.8749
245.275 169 18.8729
245.275 172 18.8729
245.275 174 18.8729
253.471 166 16.3912
253.251 166 19.4866
257.462 168 16.6493
257.24 172 19.7935
257.646 173 13.5027
240.761 140 24.4556
240.444 141 27.3952
240.092 142 30.3306
244.06 143 30.832
244.741 145 24.8598
250.71 140 25.4662
250.013 140 31.584
252.367 140 28.7536
248.72 143 25.2641
250.71 146 25.4662
243.665 147 33.8114
245.646 146 34.0862
251.144 150 37.982
248.029 144 31.3333
252.367 145 28.7536
247.627 143 34.3611
251.589 145 34.9109
246.406 147 28.0744
247.018 158 22.0458
248.029 153 31.3333
247.627 153 34.3611
246.73 160 25.062
247.018 162 22.0458
246.73 164 25.062
251.002 161 22.4014
250.71 161 25.4662
250.38 162 28.5272
246.406 160 28.0744
246.406 158 28.0744
250.38 158 28.5272
250.013 161 31.584
246.044 163 31.0826
245.646 160 34.0862
249.608 161 34.636
245.646 162 34.0862
245.646 154 34.0862
247.627 156 34.3611
251.589 153 34.9109
251.144 153 37.982
249.167 156 37.6829
245.212 153 37.0848
246.714 154 40.401
245.646 156 34.0862
245.212 159 37.0848
246.714 158 40.401
245.212 162 37.0848
244.74 162 40.0777
251.144 158 37.982
253.57 157 35.1858
249.608 160 34.636
251.144 160 37.982
253.57 161 35.1858
250.661 157 41.0474
254.609 161 41.6938
247.018 168 22.0458
249.01 171 22.2236
247.018 165 22.0458
248.72 167 25.2641
248.393 166 28.3008
248.393 170 28.3008
244.741 173 24.8598
244.419 174 27.848
244.06 173 30.832
251.002 165 22.4014
254.689 163 25.8704
256.979 164 22.9347
256.979 168 22.9347
256.679 166 26.0725
256.342 164 29.2064
256.679 169 26.0725
249.01 177 22.2236
251.257 179 19.3332
248.72 177 25.2641
248.393 177 28.3008
256.979 172 22.9347
256.979 176 22.9347
257.24 179 19.7935
256.342 174 29.2064
260.316 178 29.6592
247.627 167 34.3611
246.714 165 40.401
251.144 166 37.982
247.189 168 37.3838
247.189 170 37.3838
251.144 171 37.982
243.665 173 33.8114
247.627 171 34.3611
247.627 176 34.3611
243.234 173 36.7857
242.767 173 39.7545
246.714 176 40.401
247.189 176 37.3838
255.966 164 32.336
255.551 166 35.4607
255.966 170 32.336
255.551 163 35.4607
255.099 164 38.5801
254.609 164 41.6938
252.635 167 41.3706
255.099 168 38.5801
255.551 175 35.4607
259.054 171 39.1783
258.556 171 42.3402
259.054 175 39.1783
246.202 152 43.412
243.688 151 46.0453
245.068 152 49.4143
245.653 154 46.4167
245.068 150 49.4143
247.618 150 46.788
246.202 157 43.412
250.141 154 44.1066
245.653 156 46.4167
245.068 154 49.4143
248.989 154 50.205
249.584 156 47.1593
252.91 157 50.9956
246.202 160 43.412
244.232 163 43.0647
243.688 163 46.0453
243.688 165 46.0453
246.202 166 43.412
243.688 161 46.0453
245.068 160 49.4143
243.107 164 49.019
254.08 160 44.8012
249.584 163 47.1593
252.111 165 44.4539
253.514 160 47.902
252.91 159 50.9956
248.989 163 50.205
248.357 163 53.2431
252.91 162 50.9956
244.446 152 52.4046
243.787 152 55.3871
247.688 153 56.2733
243.787 156 55.3871
244.446 159 52.4046
243.787 159 55.3871
241.837 162 54.944
248.357 160 53.2431
252.268 157 54.0816
251.589 157 57.1595
252.268 160 54.0816
241.837 151 54.944
243.092 154 58.3613
243.092 157 58.3613
242.361 155 61.3268
241.148 161 57.8945
245.037 159 58.8282
244.3 160 61.8175
240.422 158 60.8362
241.594 157 64.2832
246.982 154 59.2951
246.982 156 59.2951
248.927 158 59.762
250.117 157 63.2893
247.392 156 65.826
246.202 170 43.412
245.653 169 46.4167
245.653 172 46.4167
242.263 174 42.7175
246.202 176 43.412
245.653 174 46.4167
245.068 174 49.4143
242.49 166 51.9854
244.446 169 52.4046
245.068 169 49.4143
247.028 170 49.8096
246.401 165 52.8239
247.688 169 56.2733
244.446 171 52.4046
243.787 171 55.3871
244.446 174 52.4046
243.787 175 55.3871
253.514 168 47.902
258.02 170 45.4958
257.445 170 48.6447
257.445 174 48.6447
252.268 168 54.0816
256.831 170 51.7862
256.179 170 54.9201
256.179 173 54.9201
241.148 165 57.8945
246.982 163 59.2951
245.738 166 55.8302
241.594 161 64.2832
241.594 164 64.2832
244.3 162 61.8175
242.361 165 61.3268
239.661 167 63.7689
242.361 168 61.3268
241.594 171 64.2832
243.092 169 58.3613
243.092 172 58.3613
242.361 174 61.3268
249.638 163 56.7164
250.871 161 60.2289
248.178 163 62.7987
249.325 161 66.3403
248.927 168 59.762
252.056 169 63.7799
254.761 171 61.1627
254.761 174 61.1627
253.995 171 64.2705
253.191 171 67.3688
241.817 195 -63.4395
243.751 191 -63.947
246.455 193 -61.4482
243.295 193 -57.5124
251.08 192 -59.3528
251.08 194 -59.3528
245.931 198 -54.9721
247.187 198 -58.4326
249.134 198 -58.8927
251.787 198 -56.281
244.88 194 -67.4513
244.88 197 -67.4513
248.737 192 -68.5135
249.555 195 -65.4695
251.49 191 -65.9771
251.08 195 -59.3528
254.217 192 -63.3835
253.424 200 -66.4846
254.217 200 -63.3835
250.336 198 -62.4158
250.336 197 -62.4158
239.096 200 -65.8579
241.817 200 -63.4395
241.817 198 -63.4395
242.574 198 -60.4805
243.295 197 -57.5124
238.693 201 -59.5128
237.948 203 -62.4245
240.633 206 -59.9966
242.574 204 -60.4805
241.817 208 -63.4395
247.621 207 -64.962
249.555 203 -65.4695
250.336 203 -62.4158
249.555 209 -65.4695
250.336 208 -62.4158
246.584 192 -51.9635
251.787 192 -56.281
252.455 192 -53.2007
253.086 191 -50.1125
252.455 196 -53.2007
244.627 195 -51.551
244.627 201 -51.551
245.239 200 -48.5586
251.125 201 -49.724
249.747 191 -46.2878
250.294 190 -43.2332
246.352 191 -42.5524
246.853 192 -39.5395
245.814 195 -45.5589
244.381 196 -42.212
251.125 190 -49.724
253.68 192 -47.0168
254.235 189 -43.9141
254.235 192 -43.9141
254.753 192 -40.8048
254.235 197 -43.9141
241.817 211 -63.4395
242.574 211 -60.4805
241.348 210 -57.0523
239.402 212 -56.5922
239.402 217 -56.5922
242.027 210 -54.0995
240.713 211 -50.7262
244.627 207 -51.551
249.163 210 -49.3355
240.713 215 -50.7262
250.336 213 -62.4158
250.336 217 -62.4158
253.027 217 -59.8129
247.187 217 -58.4326
247.187 219 -58.4326
250.336 220 -62.4158
251.08 220 -59.3528
251.787 218 -56.281
247.883 217 -55.4084
248.541 215 -52.3759
249.163 213 -49.3355
252.455 218 -53.2007
255.048 216 -50.5009
249.163 216 -49.3355
249.747 216 -46.2878
244.627 204 -51.551
243.277 203 -48.1701
245.239 206 -48.5586
245.814 204 -45.5589
245.814 201 -45.5589
250.294 203 -43.2332
242.904 202 -38.9069
250.803 202 -40.1721
241.881 214 -44.8299
242.41 209 -41.8715
242.41 212 -41.8715
242.904 212 -38.9069
243.277 210 -48.1701
245.239 209 -48.5586
245.814 209 -45.5589
249.747 212 -46.2878
244.879 207 -39.2232
247.318 208 -36.5208
243.361 211 -35.9364
250.294 207 -43.2332
246.853 208 -39.5395
251.275 206 -37.1051
246.853 214 -39.5395
251.275 211 -37.1051
250.294 216 -43.2332
252.778 215 -40.4885
237.456 223 -56.1321
238.693 221 -59.5128
246.455 222 -61.4482
240.076 221 -53.6632
240.713 220 -50.7262
244.627 224 -51.551
235.509 231 -55.672
236.172 227 -52.7907
236.172 229 -52.7907
237.391 224 -47.0047
241.315 221 -47.7817
236.799 225 -49.9014
243.277 229 -48.1701
251.08 223 -59.3528
253.738 223 -56.7172
248.541 223 -52.3759
252.455 226 -53.2007
251.08 229 -59.3528
251.787 229 -56.281
245.241 232 -57.9725
244.627 231 -51.551
245.239 231 -48.5586
245.814 230 -45.5589
249.163 233 -49.3355
250.498 233 -52.7883
253.086 232 -50.1125
247.883 235 -55.4084
251.787 233 -56.281
252.455 232 -53.2007
249.835 239 -55.8447
251.787 241 -56.281
236.799 235 -49.9014
232.268 242 -51.9181
232.885 242 -49.0766
236.172 240 -52.7907
236.799 240 -49.9014
233.467 242 -46.2278
235.429 241 -46.6162
237.391 239 -47.0047
238.469 233 -41.1907
245.814 233 -45.5589
243.277 234 -48.1701
245.239 237 -48.5586
245.814 240 -45.5589
244.381 239 -42.212
246.352 237 -42.5524
244.627 236 -51.551
238.756 242 -50.3138
248.541 240 -52.3759
252.455 243 -53.2007
249.163 240 -49.3355
251.713 243 -46.6523
250.294 241 -43.2332
238.469 222 -41.1907
238.469 224 -41.1907
238.954 223 -38.2743
239.404 223 -35.3521
244.879 228 -39.2232
242.904 218 -38.9069
243.361 217 -35.9364
243.361 220 -35.9364
243.361 221 -35.9364
241.8 222 -32.6926
244.879 224 -39.2232
247.746 223 -33.4965
238.954 227 -38.2743
236.979 230 -37.9579
239.404 228 -35.3521
239.818 226 -32.4247
245.764 228 -33.2286
237.425 230 -35.0599
239.404 233 -35.3521
239.818 233 -32.4247
251.71 225 -34.0325
249.728 228 -33.7645
248.828 228 -39.8558
244.879 232 -39.2232
245.34 232 -36.2286
246.853 237 -39.5395
248.137 236 -30.4673
239.818 236 -32.4247
242.181 236 -29.7361
254.753 240 -40.8048
255.232 238 -37.6894
255.674 236 -34.5684
241.315 220 -47.7817
245.239 224 -48.5586
241.881 218 -44.8299
242.41 217 -41.8715
247.318 215 -36.5208
248.828 223 -39.8558
246.352 225 -42.5524
250.294 223 -43.2332
252.455 222 -53.2007
253.086 224 -50.1125
253.086 220 -50.1125
255.646 223 -47.3812
253.68 218 -47.0168
254.235 218 -43.9141
250.294 225 -43.2332
256.206 221 -44.2545
255.232 218 -37.6894
258.177 224 -44.5949
256.728 223 -41.1211
257.211 222 -37.9816
250.803 227 -40.1721
251.275 225 -37.1051
255.674 228 -34.5684
255.232 230 -37.6894
253.68 226 -47.0168
253.086 228 -50.1125
256.206 229 -44.2545
253.68 231 -47.0168
254.235 234 -43.9141
254.235 236 -43.9141
254.753 238 -40.8048
254.753 233 -40.8048
242.904 189 -38.9069
243.782 190 -32.9606
250.803 190 -40.1721
251.71 191 -34.0325
243.361 190 -35.9364
245.34 194 -36.2286
243.361 197 -35.9364
251.71 197 -34.0325
244.166 188 -29.9799
244.826 188 -24.0054
248.49 192 -27.4336
252.466 188 -27.8725
244.166 195 -29.9799
244.166 198 -29.9799
246.816 194 -24.2006
244.514 196 -26.9946
244.826 196 -24.0054
248.49 193 -27.4336
252.466 194 -27.8725
252.466 197 -27.8725
243.782 203 -32.9606
251.71 203 -34.0325
244.514 202 -26.9946
252.466 201 -27.8725
245.764 207 -33.2286
248.137 208 -30.4673
245.764 213 -33.2286
244.166 212 -29.9799
244.514 212 -26.9946
251.71 207 -34.0325
252.107 212 -30.9548
246.816 207 -24.2006
248.807 208 -24.3957
244.514 211 -26.9946
244.826 211 -24.0054
252.466 210 -27.8725
247.094 191 -21.1834
252.788 189 -24.7861
253.318 187 -18.6025
245.101 190 -21.0126
245.339 188 -18.0166
245.541 187 -15.0179
245.101 195 -21.0126
247.334 196 -18.1631
249.329 193 -18.3095
247.537 191 -15.14
249.702 193 -12.2124
249.534 194 -15.2621
249.702 195 -12.2124
255.313 191 -18.749
253.526 190 -15.5063
255.694 191 -12.5055
259.515 191 -15.8726
259.302 188 -19.0419
257.307 194 -18.8955
257.519 194 -15.7505
259.515 195 -15.8726
259.69 197 -12.7009
245.101 199 -21.0126
253.072 199 -21.6959
245.339 203 -18.0166
245.541 198 -15.0179
245.541 201 -15.0179
249.534 204 -15.2621
245.101 206 -21.0126
245.101 211 -21.0126
249.086 209 -21.3542
249.329 211 -18.3095
253.072 211 -21.6959
247.334 209 -18.1631
249.534 207 -15.2621
253.318 205 -18.6025
245.835 200 -9.01435
249.702 203 -12.2124
247.833 203 -9.08764
247.833 208 -9.08764
249.832 206 -9.16093
249.702 207 -12.2124
255.924 208 -6.25464
255.313 200 -18.749
253.526 202 -15.5063
259.515 199 -15.8726
255.694 200 -12.5055
257.827 201 -9.45408
253.526 208 -15.5063
257.827 206 -9.45408
242.181 222 -29.7361
240.539 224 -26.5557
244.514 220 -26.9946
244.826 220 -24.0054
240.196 226 -29.4924
246.502 224 -27.2141
246.502 228 -27.2141
243.108 222 -20.8417
241.116 226 -20.6709
246.816 224 -24.2006
245.101 221 -21.0126
249.086 228 -21.3542
236.226 233 -29.0049
240.539 229 -26.5557
238.551 231 -26.3362
236.864 232 -23.2247
240.196 229 -29.4924
248.137 232 -30.4673
248.49 232 -27.4336
239.123 230 -20.5001
241.35 231 -17.7236
246.816 234 -24.2006
247.094 232 -21.1834
247.334 231 -18.1631
243.782 217 -32.9606
247.746 215 -33.4965
248.137 215 -30.4673
246.502 213 -27.2141
244.514 217 -26.9946
243.782 219 -32.9606
244.514 219 -26.9946
248.49 214 -27.4336
248.807 214 -24.3957
249.086 214 -21.3542
249.086 215 -21.3542
245.101 217 -21.0126
250.797 223 -24.5909
253.692 215 -34.3005
256.077 217 -31.4423
255.674 219 -34.5684
252.107 224 -30.9548
258.062 221 -31.686
258.43 221 -28.5309
254.778 215 -24.9812
256.442 217 -28.3115
257.057 216 -22.0376
256.769 219 -25.1764
258.062 224 -31.686
252.466 225 -27.8725
256.769 228 -25.1764
258.759 222 -25.3716
252.788 227 -24.7861
253.072 226 -21.6959
259.05 224 -22.2084
257.307 230 -18.8955
250.122 228 -30.7111
256.077 229 -31.4423
256.442 232 -28.3115
256.769 234 -25.1764
245.339 213 -18.0166
245.541 215 -15.0179
247.537 212 -15.14
249.702 212 -12.2124
245.541 219 -15.0179
245.706 217 -12.017
245.835 220 -9.01435
245.835 216 -9.01435
245.927 211 -6.01032
245.927 217 -6.01032
245.982 217 -3.00538
253.829 211 -9.3075
253.924 213 -6.20577
255.924 215 -6.25464
245.339 217 -18.0166
245.339 219 -18.0166
251.323 223 -18.456
249.534 222 -15.2621
249.702 220 -12.2124
253.072 212 -21.6959
253.318 213 -18.6025
253.526 213 -15.5063
257.307 219 -18.8955
257.519 216 -15.7505
257.692 216 -12.6032
257.519 220 -15.7505
257.827 217 -9.45408
257.923 218 -6.3035
243.709 224 -11.9193
241.711 225 -11.8216
241.549 226 -14.7737
241.711 229 -11.8216
245.706 224 -12.017
245.835 226 -9.01435
247.704 231 -12.1147
245.927 222 -6.01032
241.982 226 -2.95651
243.927 228 -5.96145
246 225 0
249.981 226 -3.05425
253.526 225 -15.5063
253.697 224 -12.4078
257.692 223 -12.6032
253.697 226 -12.4078
251.699 228 -12.3101
251.831 224 -9.23421
251.831 227 -9.23421
257.519 231 -15.7505
257.827 231 -9.45408
257.692 229 -12.6032
259.922 222 -6.35237
257.981 219 -3.15199
259.981 222 -3.17642
251.925 224 -6.15691
253.981 224 -3.10312
252 225 0
257.981 228 -3.15199
232.885 247 -49.0766
236.799 248 -49.9014
233.467 251 -46.2278
236.799 251 -49.9014
240.713 248 -50.7262
241.315 247 -47.7817
240.713 252 -50.7262
241.315 249 -47.7817
241.881 248 -44.8299
241.881 250 -44.8299
237.391 252 -47.0047
241.315 252 -47.7817
233.467 247 -46.2278
234.015 243 -43.3721
238.469 241 -41.1907
234.527 247 -40.5099
237.948 248 -44.101
238.469 249 -41.1907
240.44 247 -41.5311
243.847 245 -45.1944
238.469 250 -41.1907
242.41 249 -41.8715
233.467 254 -46.2278
237.391 254 -47.0047
237.948 253 -44.101
234.527 253 -40.5099
235.004 254 -37.6416
238.954 251 -38.2743
242.41 252 -41.8715
238.469 254 -41.1907
232.885 254 -49.0766
233.467 261 -46.2278
237.948 260 -44.101
234.015 263 -43.3721
235.004 261 -37.6416
251.125 246 -49.724
248.541 248 -52.3759
249.163 250 -49.3355
241.315 255 -47.7817
248.541 254 -52.3759
251.125 255 -49.724
249.747 253 -46.2878
251.713 248 -46.6523
250.294 245 -43.2332
250.294 249 -43.2332
250.803 248 -40.1721
242.41 253 -41.8715
250.294 253 -43.2332
250.294 251 -43.2332
248.828 253 -39.8558
241.881 256 -44.8299
239.353 263 -47.3932
242.904 255 -38.9069
240.44 263 -41.5311
249.747 259 -46.2878
253.086 263 -50.1125
253.68 264 -47.0168
252.264 263 -43.5736
250.803 259 -40.1721
238.954 241 -38.2743
239.404 240 -35.3521
235.004 245 -37.6416
235.447 244 -34.7678
235.004 248 -37.6416
235.447 248 -34.7678
235.854 247 -31.8887
239.404 248 -35.3521
239.818 248 -32.4247
238.211 242 -29.2486
239.818 240 -32.4247
236.226 237 -29.0049
240.196 238 -29.4924
240.539 240 -26.5557
236.563 246 -26.1168
240.196 248 -29.4924
240.539 248 -26.5557
242.526 247 -26.7752
235.447 252 -34.7678
239.818 254 -32.4247
235.447 259 -34.7678
235.854 256 -31.8887
236.226 258 -29.0049
236.226 253 -29.0049
240.196 252 -29.4924
236.563 251 -26.1168
236.864 249 -23.2247
236.563 250 -26.1168
236.563 258 -26.1168
236.563 255 -26.1168
240.539 255 -26.5557
236.864 255 -23.2247
243.361 247 -35.9364
247.746 246 -33.4965
248.828 244 -39.8558
247.318 245 -36.5208
251.71 249 -34.0325
244.514 247 -26.9946
248.137 246 -30.4673
252.107 248 -30.9548
248.49 245 -27.4336
248.807 245 -24.3957
250.803 243 -40.1721
254.753 243 -40.8048
255.232 243 -37.6894
253.692 243 -34.3005
252.466 243 -27.8725
256.077 243 -31.4423
256.442 241 -28.3115
247.746 255 -33.4965
251.71 254 -34.0325
251.71 260 -34.0325
255.674 257 -34.5684
254.092 255 -31.1986
256.077 258 -31.4423
256.442 257 -28.3115
248.137 251 -30.4673
248.137 254 -30.4673
246.816 247 -24.2006
248.807 250 -24.3957
252.788 248 -24.7861
248.49 255 -27.4336
248.807 253 -24.3957
246.816 256 -24.2006
252.788 257 -24.7861
234.527 268 -40.5099
234.015 275 -43.3721
237.948 272 -44.101
238.469 272 -41.1907
237.948 276 -44.101
238.469 276 -41.1907
235.447 275 -34.7678
235.004 284 -37.6416
236.498 288 -40.8503
235.004 288 -37.6416
238.469 283 -41.1907
240.929 288 -38.5906
246.352 285 -42.5524
235.854 282 -31.8887
253.68 267 -47.0168
253.68 270 -47.0168
250.294 267 -43.2332
249.747 274 -46.2878
250.803 274 -40.1721
254.235 273 -43.9141
241.382 263 -35.6443
246.853 269 -39.5395
247.318 269 -36.5208
251.275 265 -37.1051
246.853 271 -39.5395
247.318 270 -36.5208
251.275 273 -37.1051
251.71 269 -34.0325
251.71 273 -34.0325
249.747 278 -46.2878
248.323 279 -42.8928
248.323 282 -42.8928
250.803 279 -40.1721
250.294 288 -43.2332
250.803 286 -40.1721
251.275 284 -37.1051
249.297 278 -36.8129
249.728 278 -33.7645
252.107 275 -30.9548
250.122 277 -30.7111
252.107 283 -30.9548
236.563 269 -26.1168
236.864 276 -23.2247
237.13 273 -20.3292
237.361 274 -17.4307
237.13 278 -20.3292
235.366 281 -17.2842
236.864 281 -23.2247
241.35 270 -17.7236
241.35 273 -17.7236
241.549 278 -14.7737
251.079 282 -21.5251
249.329 280 -18.3095
249.534 278 -15.2621
235.854 263 -31.8887
242.181 263 -29.7361
236.864 261 -23.2247
237.13 260 -20.3292
242.835 263 -23.8102
252.107 263 -30.9548
252.466 262 -27.8725
244.826 263 -24.0054
247.334 267 -18.1631
252.788 261 -24.7861
253.072 259 -21.6959
252.466 267 -27.8725
248.137 271 -30.4673
248.49 271 -27.4336
252.788 265 -24.7861
253.072 266 -21.6959
252.788 269 -24.7861
253.072 268 -21.6959
251.079 271 -21.5251
249.329 269 -18.3095
252.788 275 -24.7861
250.478 277 -27.653
252.788 280 -24.7861
253.072 275 -21.6959
251.323 274 -18.456
236.864 236 -23.2247
240.845 238 -23.6151
241.35 235 -17.7236
241.116 239 -20.6709
240.845 240 -23.6151
238.855 242 -23.4199
241.35 240 -17.7236
237.716 234 -11.6262
237.716 237 -11.6262
239.839 237 -8.79449
241.549 235 -14.7737
241.549 237 -14.7737
239.552 242 -14.6516
239.713 242 -11.7239
237.84 242 -8.7212
241.837 239 -8.86778
241.711 241 -11.8216
243.709 239 -11.9193
245.835 241 -9.01435
237.13 245 -20.3292
237.361 245 -17.4307
245.339 247 -18.0166
237.361 249 -17.4307
243.345 248 -17.8701
237.13 252 -20.3292
237.556 250 -14.5296
243.709 248 -11.9193
247.537 256 -15.14
241.837 252 -8.86778
243.108 236 -20.8417
249.086 236 -21.3542
249.086 237 -21.3542
251.079 240 -21.5251
251.079 244 -21.5251
247.334 236 -18.1631
247.334 239 -18.1631
249.702 236 -12.2124
249.702 241 -12.2124
257.057 238 -22.0376
254.778 243 -24.9812
253.072 243 -21.6959
257.307 237 -18.8955
253.526 240 -15.5063
257.519 239 -15.7505
257.692 240 -12.6032
245.101 247 -21.0126
249.086 245 -21.3542
249.329 246 -18.3095
253.318 249 -18.6025
249.534 246 -15.2621
249.702 246 -12.2124
251.699 244 -12.3101
253.697 249 -12.4078
249.086 255 -21.3542
253.318 256 -18.6025
249.534 255 -15.2621
253.526 256 -15.5063
251.831 253 -9.23421
251.699 254 -12.3101
253.829 254 -9.3075
239.928 237 -5.86372
241.982 236 -2.95651
237.929 236 -5.81486
237.929 241 -5.81486
239.982 238 -2.93208
239.928 240 -5.86372
237.929 242 -5.81486
247.926 242 -6.05918
241.97 235 3.80117
241.999 240 0.844738
241.97 239 3.80117
241.928 246 -5.91259
241.982 248 -2.95651
239.999 246 0.837756
239.999 248 0.837756
242 248 0
237.982 250 -2.90765
238 250 0
239.97 243 3.76976
239.906 243 6.70119
239.97 247 3.76976
237.907 246 6.64535
247.998 245 0.865682
249.998 241 0.872663
247.969 239 3.89541
245.904 245 6.86872
245.999 247 0.8587
243.999 250 0.851719
249.981 252 -3.05425
248 252 0
253.998 252 0.886625
255.998 248 0.893607
253.969 250 3.98966
257.968 247 4.05249
255.9 246 7.14794
253.901 249 7.0921
241.928 232 -5.91259
247.926 232 -6.05918
245.927 236 -6.01032
247.926 241 -6.05918
241.999 231 0.844738
246 228 0
246 230 0
244 232 0
245.999 234 0.8587
249.981 233 -3.05425
251.998 229 0.879644
249.981 235 -3.05425
250 235 0
253.829 233 -9.3075
253.981 232 -3.10312
257.981 231 -3.15199
253.924 235 -6.20577
253.829 238 -9.3075
257.692 236 -12.6032
253.924 239 -6.20577
253.829 240 -9.3075
257.998 233 0.900588
250 238 0
253.998 239 0.886625
251.981 243 -3.07868
253.981 239 -3.10312
258 238 0
257.968 239 4.05249
257.998 244 0.900588
257.968 245 4.05249
237.556 258 -14.5296
237.361 263 -17.4307
237.716 262 -11.6262
239.552 265 -14.6516
237.84 255 -8.7212
243.836 255 -8.94106
241.837 258 -8.86778
243.927 257 -5.96145
241.837 261 -8.86778
237.84 264 -8.7212
241.928 265 -5.91259
237.929 262 -5.81486
243.545 261 -14.8958
245.339 261 -18.0166
247.537 264 -15.14
245.541 265 -15.0179
241.549 269 -14.7737
245.541 268 -15.0179
253.318 259 -18.6025
253.526 259 -15.5063
249.329 262 -18.3095
253.318 265 -18.6025
251.699 259 -12.3101
247.704 256 -12.1147
247.833 257 -9.08764
249.832 261 -9.16093
249.925 259 -6.10804
243.836 265 -8.94106
247.833 264 -9.08764
243.927 265 -5.96145
245.982 264 -3.00538
249.925 263 -6.10804
239.982 267 -2.93208
237.982 265 -2.90765
241.982 267 -2.95651
237.982 272 -2.90765
239.928 272 -5.86372
238 270 0
238 274 0
235.999 276 0.823794
238 276 0
239.999 274 0.837756
243.982 272 -2.98095
241.999 272 0.844738
246 274 0
239.839 272 -8.79449
237.84 274 -8.7212
237.716 276 -11.6262
233.843 279 -8.57463
237.716 279 -11.6262
233.93 276 -5.71713
233.999 277 0.816812
237.929 273 -5.81486
237.982 276 -2.90765
237.556 272 -14.5296
239.552 271 -14.6516
241.549 271 -14.7737
241.549 275 -14.7737
247.537 271 -15.14
243.709 271 -11.9193
243.836 271 -8.94106
253.526 275 -15.5063
249.702 273 -12.2124
249.702 279 -12.2124
253.697 276 -12.4078
245.982 270 -3.00538
247.926 273 -6.05918
247.704 271 -12.1147
249.832 274 -9.16093
249.925 276 -6.10804
238 252 0
238 253 0
242 255 0
237.982 255 -2.90765
236 256 0
237.999 256 0.830775
237.982 260 -2.90765
236 259 0
238 262 0
237.971 259 3.73834
237.907 251 6.64535
237.971 252 3.73834
237.907 254 6.64535
241.97 255 3.80117
233.811 257 9.39084
237.808 255 9.55137
237.674 258 12.456
237.907 259 6.64535
237.808 258 9.55137
243.982 255 -2.98095
246 256 0
249.981 259 -3.05425
248 260 0
246 262 0
251.981 256 -3.07868
253.998 256 0.886625
254 258 0
251.998 260 0.879644
243.97 256 3.83259
249.903 258 6.98041
253.998 254 0.886625
253.901 253 7.0921
251.902 254 7.03625
249.799 254 10.0329
238 266 0
241.999 266 0.844738
241.999 268 0.844738
241.97 269 3.80117
235.971 272 3.70693
237.907 274 6.64535
239.906 272 6.70119
241.906 263 6.75704
241.906 265 6.75704
239.807 265 9.63163
237.808 262 9.55137
237.674 261 12.456
243.905 267 6.81288
241.805 271 9.71189
239.5 270 15.4878
249.969 262 3.92683
249.903 262 6.98041
251.797 261 10.1132
249.998 265 0.872663
249.969 265 3.92683
247.969 268 3.89541
249.969 273 3.92683
245.663 263 12.8746
251.655 263 13.1887
253.471 270 16.3912
247.8 268 9.95268
249.903 272 6.98041
249.799 272 10.0329
243.803 265 9.79216
245.663 269 12.8746
245.487 270 15.8749
245.706 187 -12.017
249.925 188 -6.10804
249.981 192 -3.05425
245.835 195 -9.01435
249.925 195 -6.10804
249.832 184 -9.16093
255.924 184 -6.25464
253.697 187 -12.4078
259.69 186 -12.7009
257.827 192 -9.45408
257.827 194 -9.45408
257.923 192 -6.3035
255.981 191 -3.12755
249.981 186 -3.05425
250 185 0
247.998 191 0.865682
245.97 184 3.864
245.904 187 6.86872
245.97 189 3.864
245.904 190 6.86872
255.981 184 -3.12755
257.998 184 0.900588
257.968 186 4.05249
263.998 185 0.921532
263.967 185 4.14673
261.998 189 0.914551
247.926 200 -6.05918
254 201 0
257.923 201 -6.3035
250 196 0
246 201 0
247.981 200 -3.02982
248 200 0
249.969 198 3.92683
257.981 195 -3.15199
257.998 194 0.900588
259.968 191 4.0839
257.968 189 4.05249
263.967 187 4.14673
261.968 190 4.11532
263.998 192 0.921532
263.967 193 4.14673
247.903 191 6.92457
249.903 193 6.98041
257.899 195 7.20378
257.998 198 0.900588
257.968 198 4.05249
257.968 201 4.05249
245.663 185 12.8746
245.802 189 9.87242
245.663 190 12.8746
247.483 191 16.004
245.802 190 9.87242
249.799 193 10.0329
247.483 182 16.004
249.263 183 19.1798
251.257 181 19.3332
249.01 183 22.2236
245.487 185 15.8749
245.275 186 18.8729
249.01 187 22.2236
249.263 189 19.1798
249.657 197 13.084
249.657 200 13.084
249.263 194 19.1798
245.487 196 15.8749
251.475 196 16.2621
249.263 197 19.1798
249.01 194 22.2236
256.979 196 22.9347
257.899 184 7.20378
261.789 184 10.5145
257.792 188 10.354
263.897 186 7.37131
261.641 189 13.712
259.899 191 7.25963
261.789 190 10.5145
261.898 191 7.31547
257.792 196 10.354
257.792 199 10.354
257.646 198 13.5027
257.462 195 16.6493
257.792 192 10.354
261.898 194 7.31547
263.787 193 10.5948
261.641 191 13.712
263.638 194 13.8167
263.45 194 17.0365
257.646 185 13.5027
263.45 183 17.0365
263.638 185 13.8167
263.45 186 17.0365
257.24 183 19.7935
258.971 181 23.1125
259.234 186 19.9469
260.963 184 23.2903
257.462 189 16.6493
257.24 189 19.7935
261.454 189 16.9075
261.228 190 20.1004
263.45 187 17.0365
260.963 187 23.2903
257.24 193 19.7935
261.454 191 16.9075
260.963 192 23.2903
263.222 194 20.2538
241.999 208 0.844738
241.999 211 0.844738
243.97 211 3.83259
241.999 214 0.844738
246 212 0
241.999 216 0.844738
246 217 0
247.969 215 3.89541
241.97 216 3.80117
241.906 214 6.75704
243.905 217 6.81288
245.802 206 9.87242
245.802 208 9.87242
243.905 211 6.81288
247.903 209 6.92457
247.8 211 9.95268
241.805 213 9.71189
241.805 216 9.71189
247.903 215 6.92457
247.8 215 9.95268
245.999 205 0.8587
249.981 204 -3.05425
250 205 0
249.981 206 -3.05425
249.981 211 -3.05425
254 210 0
257.923 206 -6.3035
257.981 207 -3.15199
257.998 206 0.900588
249.969 203 3.92683
249.903 202 6.98041
247.903 204 6.92457
245.97 207 3.864
257.968 205 4.05249
253.901 204 7.0921
253.795 208 10.1935
246 219 0
247.969 220 3.89541
245.999 222 0.8587
249.969 218 3.92683
249.903 218 6.98041
247.8 217 9.95268
245.904 221 6.86872
249.799 219 10.0329
249.998 218 0.872663
254 218 0
253.998 221 0.886625
253.969 222 3.98966
257.998 224 0.900588
253.969 220 3.98966
253.901 221 7.0921
255.794 221 10.2737
257.998 211 0.900588
254 215 0
257.981 216 -3.15199
257.998 216 0.900588
257.968 211 4.05249
253.901 212 7.0921
257.968 217 4.05249
257.899 222 7.20378
259.998 221 0.907569
259.968 222 4.0839
255.794 215 10.2737
257.899 216 7.20378
257.792 217 10.354
259.791 220 10.4343
245.663 206 12.8746
245.487 208 15.8749
243.491 211 15.7459
247.66 211 12.9793
247.483 211 16.004
241.496 216 15.6168
245.663 215 12.8746
249.657 218 13.084
247.483 218 16.004
247.269 218 19.0263
255.649 218 13.398
257.24 220 19.7935
